ply
format ascii 1.0
comment PCL generated
element vertex 1495
property float x
property float y
property float z
element face 0
element camera 0
property float view_px
property float view_py
property float view_pz
property float x_axisx
property float x_axisy
property float x_axisz
property float y_axisx
property float y_axisy
property float y_axisz
property float z_axisx
property float z_axisy
property float z_axisz
property float focal
property float scalex
property float scaley
property float centerx
property float centery
property int viewportx
property int viewporty
property float k1
property float k2
end_header
-296.37814 221.21069 -162.58275
-295.04984 221.43721 -162.74725
-294.07208 221.50113 -162.79483
-293.21643 221.53455 -162.8197
-292.07095 221.45062 -162.75578
-291.0704 221.42508 -162.73657
-290.21991 221.366 -162.7731
-289.21915 221.32983 -162.74698
-288.21832 221.29337 -162.72116
-287.06808 221.321 -162.66206
-286.09036 221.38696 -162.70793
-285.41309 221.38474 -162.71121
-284.07104 221.45351 -162.75769
-283.23209 221.45796 -162.96605
-297.62607 225.47018 -162.22168
-294.13647 225.78456 -162.33289
-293.79599 225.15475 -162.1082
-285.62576 225.46967 -162.22055
-282.13165 225.79329 -162.3517
-281.79602 225.16826 -162.12369
-297.58447 226.04398 -162.89122
-294.00754 226.04398 -162.89122
-285.58447 226.04398 -162.89122
-282.00491 226.04994 -162.9041
-297.78397 241.80339 -162.66376
-293.80829 241.80672 -162.65901
-285.78372 241.80672 -162.65901
-281.80817 241.80537 -162.66092
-297.77191 242.13177 -162.23793
-293.8204 242.13596 -162.23248
-285.77158 242.13596 -162.23248
-281.82043 242.13596 -162.23248
-310.86426 245.80594 -162.88481
-309.86374 245.78098 -162.90361
-308.86322 245.75626 -162.92261
-307.86267 245.73172 -162.9418
-306.88358 245.73511 -162.93909
-305.88342 245.72758 -162.94489
-304.88327 245.72005 -162.9507
-303.88312 245.71254 -162.95654
-302.88293 245.70506 -162.96239
-301.88278 245.69762 -162.96826
-300.86328 245.75932 -162.92096
-299.86273 245.73444 -162.93983
-298.86221 245.70978 -162.95889
-297.84113 245.69875 -162.96736
-296.84061 245.67377 -162.9873
-295.86154 245.67947 -162.98271
-294.86157 245.67947 -162.98271
-293.83969 245.67329 -162.98772
-292.86154 245.67947 -162.98271
-291.86157 245.67947 -162.98271
-290.86154 245.67947 -162.98271
-289.84253 245.76265 -162.91827
-288.84195 245.73701 -162.93764
-287.84143 245.71162 -162.95723
-286.84091 245.68652 -162.97707
-285.83969 245.67328 -162.9877
-284.86157 245.67947 -162.98271
-283.86154 245.67947 -162.98271
-311.52554 246.57217 -162.74881
-309.71793 246.83032 -162.32248
-308.67816 246.81702 -162.42056
-307.67725 246.77573 -162.44601
-306.67633 246.73473 -162.47182
-305.65845 246.73059 -162.47487
-304.65775 246.69763 -162.49622
-303.65704 246.66492 -162.51784
-302.67764 246.6776 -162.48537
-301.67682 246.63863 -162.51067
-300.6601 246.80824 -162.427
-299.65936 246.77438 -162.44724
-298.6319 246.77191 -162.51634
-297.63104 246.73299 -162.54044
-296.63022 246.69432 -162.56488
-295.71359 246.62285 -162.4514
-294.71283 246.58833 -162.47408
-293.72412 246.6071 -162.44646
-292.7114 246.52 -162.52031
-291.72708 246.55276 -162.48447
-290.72623 246.51181 -162.51173
-289.71518 246.69849 -162.40701
-288.71442 246.66307 -162.42863
-287.58722 246.76936 -162.61508
-286.58649 246.73447 -162.63695
-285.60486 246.72032 -162.61217
-284.60123 246.65894 -162.64333
-283.44122 246.56117 -162.69447
-282.43539 246.90416 -162.89317
-322.29599 247.73997 -162.84319
-312.29599 247.73997 -162.84319
-311.45435 247.54384 -162.40099
-310.39554 247.57747 -162.46182
-309.39465 247.53432 -162.48317
-308.38745 247.55894 -162.45789
-307.38666 247.52051 -162.47668
-306.3858 247.48219 -162.49577
-305.39438 247.51077 -162.46521
-304.44809 247.4328 -162.42648
-303.44714 247.38695 -162.45035
-302.38187 247.40497 -162.5029
-301.39096 247.35149 -162.54863
-300.39279 247.43965 -162.50626
-299.40106 247.46495 -162.50719
-298.39371 247.48103 -162.48351
-297.39285 247.4406 -162.50337
-296.392 247.40039 -162.52353
-295.39117 247.36032 -162.54399
-294.39029 247.32043 -162.56477
-293.4444 247.26126 -162.51694
-292.43259 247.42511 -162.4873
-291.39236 247.42952 -162.54602
-290.46057 247.42163 -162.47195
-289.44571 247.46886 -162.47878
-288.44315 247.38901 -162.50833
-287.46735 247.59932 -162.34486
-286.46652 247.56052 -162.36359
-285.4657 247.52185 -162.38258
-284.4649 247.48337 -162.40189
-283.40298 247.40233 -162.32915
-282.43057 247.60751 -162.50691
-312.29599 248.53865 -162.49716
-307.41388 248.47046 -162.1514
-306.41315 248.43411 -162.16444
-305.41235 248.39786 -162.17773
-304.41162 248.36166 -162.19127
-303.41089 248.32561 -162.20505
-302.4101 248.28967 -162.21907
-301.40936 248.25381 -162.23332
-300.42142 248.33409 -162.20688
-299.41162 248.36331 -162.19438
-298.41089 248.327 -162.20741
-297.4101 248.29073 -162.22067
-296.40936 248.25456 -162.23418
-295.4086 248.21854 -162.24796
-294.4079 248.18254 -162.26195
-293.40707 248.1467 -162.2762
-292.4104 248.30273 -162.21222
-291.41733 248.63925 -162.09741
-290.4166 248.60307 -162.11073
-289.41962 248.74829 -162.05713
-288.41885 248.7115 -162.06897
-287.41812 248.6748 -162.08105
-286.41739 248.63818 -162.09337
-285.4166 248.60168 -162.10597
-284.41583 248.56526 -162.1188
-283.41507 248.5289 -162.13187
-282.47195 248.46152 -162.12465
-282.29599 249.07217 -162.01611
-304.58261 253.95947 -162.07935
-303.58084 253.87254 -162.05086
-302.5791 253.7854 -162.02335
-301.52087 253.99699 -162.09198
-300.52042 253.97383 -162.08417
-299.51996 253.95062 -162.07642
-298.5195 253.92741 -162.06873
-297.51901 253.90416 -162.06111
-296.51852 253.88092 -162.05356
-295.51807 253.85762 -162.0461
-294.51758 253.83437 -162.03868
-293.53326 253.83759 -162.03984
-292.51764 253.83725 -162.04001
-291.51691 253.80066 -162.02856
-290.5011 253.79118 -162.02567
-289.50061 253.76721 -162.01823
-288.45621 253.88986 -162.05644
-287.45569 253.86404 -162.04813
-286.45514 253.83821 -162.03989
-285.45462 253.81238 -162.03175
-284.45413 253.7865 -162.02368
-283.51813 253.8611 -162.04788
-282.517 253.8047 -162.02969
-312.29599 254.56412 -162.69424
-310.52728 254.30835 -162.20569
-309.52655 254.27243 -162.19174
-308.52582 254.23642 -162.17801
-307.52509 254.20036 -162.16455
-306.52432 254.16423 -162.15132
-305.53687 254.26312 -162.19475
-304.56079 254.59076 -162.29268
-303.56003 254.55392 -162.27657
-302.55923 254.51698 -162.26077
-301.57727 254.72139 -162.32182
-300.53531 254.68401 -162.3656
-299.53455 254.64853 -162.35045
-298.53378 254.61299 -162.33556
-297.53302 254.57735 -162.32091
-296.52344 254.61549 -162.33862
-295.53433 254.63866 -162.34949
-294.53348 254.59766 -162.33215
-293.56207 254.70424 -162.32344
-292.57431 254.78519 -162.33374
-291.53622 254.76921 -162.29628
-290.53537 254.72771 -162.27809
-289.49344 254.70042 -162.30846
-288.49271 254.66652 -162.29396
-287.49197 254.63252 -162.27969
-286.4913 254.59846 -162.26564
-285.4906 254.56435 -162.25182
-284.50607 254.58876 -162.27243
-283.53467 254.69519 -162.2645
-282.52704 254.56264 -162.26035
-311.56882 255.41911 -162.54002
-310.54785 255.36887 -162.45383
-309.54691 255.32527 -162.43034
-308.54599 255.28143 -162.40718
-307.49045 255.21735 -162.43498
-306.49197 255.28217 -162.47438
-305.52652 255.32478 -162.47878
-304.50003 255.64481 -162.6795
-303.55411 255.64714 -162.61691
-302.60892 255.62646 -162.66643
-301.60791 255.5815 -162.64029
-300.60693 255.53632 -162.61452
-299.60596 255.49086 -162.58917
-298.60495 255.44522 -162.56418
-297.59229 255.44939 -162.58942
-296.5517 255.47328 -162.66273
-295.55502 255.65036 -162.70522
-294.55411 255.60818 -162.6805
-293.55405 255.64948 -162.65828
-292.57516 255.64069 -162.6526
-291.60986 255.67287 -162.68781
-290.60886 255.62791 -162.66159
-289.60788 255.5827 -162.63579
-288.55264 255.58629 -162.57611
-287.55173 255.54291 -162.55215
-286.49692 255.51176 -162.59702
-285.53885 255.53564 -162.57516
-284.53229 255.58759 -162.62137
-283.43094 255.61372 -162.57527
-282.55923 255.51868 -162.71565
-311.11807 256.48233 -162.71086
-310.23431 256.43958 -162.73369
-309.23355 256.40521 -162.70964
-308.23279 256.37057 -162.68593
-307.27866 256.35983 -162.7048
-306.39822 256.31451 -162.6483
-305.2648 256.43594 -162.6702
-304.26407 256.40109 -162.64592
-303.11725 256.44659 -162.6877
-302.1167 256.4212 -162.66945
-301.11612 256.39569 -162.6514
-300.23288 256.37384 -162.68904
-299.23209 256.33939 -162.66512
-298.23132 256.30469 -162.64149
-297.27667 256.27219 -162.64607
-296.39673 256.24844 -162.60416
-295.254 256.44772 -162.61548
-294.23447 256.50385 -162.65768
-293.31403 256.54031 -162.68535
-292.08096 256.5361 -162.67738
-291.08041 256.51068 -162.65891
-290.20322 256.47632 -162.69972
-289.20248 256.44199 -162.67538
-288.21829 256.49335 -162.72116
-287.21747 256.4566 -162.69572
-286.27109 256.47025 -162.72522
-285.47949 256.49399 -162.71346
-284.25626 256.54956 -162.68591
-283.42084 256.38251 -162.7252
-297.62607 260.67017 -162.22168
-294.13647 260.98453 -162.33289
-293.79599 260.35477 -162.1082
-285.62576 260.66965 -162.22055
-282.13165 260.99332 -162.3517
-281.79602 260.36826 -162.12369
-297.58447 261.24396 -162.89122
-294.00754 261.24396 -162.89122
-285.58447 261.24396 -162.89122
-282.00491 261.24997 -162.9041
-297.77591 277.22232 -162.37987
-293.81638 277.22623 -162.37466
-285.77563 277.22623 -162.37466
-281.81631 277.2258 -162.37529
-310.86157 280.87946 -162.98271
-309.86154 280.87946 -162.98271
-308.8414 280.91104 -162.95772
-307.84085 280.88589 -162.97755
-306.86154 280.87946 -162.98271
-305.86157 280.87946 -162.98271
-304.86154 280.87946 -162.98271
-303.88309 280.91254 -162.95654
-302.88293 280.90506 -162.96239
-301.88278 280.89761 -162.96826
-300.8826 280.89017 -162.97417
-299.88245 280.88275 -162.98009
-298.88232 280.87537 -162.98601
-297.84116 280.89874 -162.96736
-296.84061 280.87375 -162.9873
-295.86154 280.87946 -162.98271
-294.86157 280.87946 -162.98271
-293.83972 280.87326 -162.98772
-292.86154 280.87946 -162.98271
-291.86157 280.87946 -162.98271
-290.86154 280.87946 -162.98271
-289.86157 280.87946 -162.98271
-288.86154 280.87946 -162.98271
-287.84143 280.91165 -162.95723
-286.84091 280.88651 -162.97707
-285.83969 280.87326 -162.98772
-284.86157 280.87946 -162.98271
-283.86154 280.87946 -162.98271
-311.62094 281.51004 -162.91516
-310.87592 281.55847 -162.50514
-309.87479 281.50613 -162.54007
-308.83127 281.70593 -162.49945
-307.83014 281.6532 -162.53275
-306.75128 281.68015 -162.64861
-305.82791 281.54895 -162.60068
-304.68774 281.59485 -162.62851
-303.62689 281.69168 -162.59828
-302.62582 281.64056 -162.633
-301.62473 281.58978 -162.66812
-300.62561 281.59933 -162.59737
-299.67389 281.65265 -162.53268
-298.67279 281.60052 -162.56747
-297.56644 281.83893 -162.61607
-296.56546 281.79242 -162.64554
-295.62701 281.69522 -162.59229
-294.62592 281.6434 -162.62631
-293.62482 281.59198 -162.66078
-292.62372 281.54099 -162.69566
-291.62262 281.49033 -162.73096
-290.62155 281.44006 -162.76665
-289.67181 281.55472 -162.59662
-288.67068 281.50269 -162.63156
-287.62714 281.70282 -162.59099
-286.62601 281.65042 -162.6243
-285.58801 281.67853 -162.72162
-284.62384 281.54669 -162.69221
-283.39029 281.48569 -162.78188
-322.29599 282.93997 -162.84319
-312.29599 282.93997 -162.84319
-311.44275 282.45718 -162.5453
-310.4989 282.34073 -162.52122
-309.48071 282.43005 -162.45573
-308.4646 282.48746 -162.45869
-307.46387 282.45255 -162.47701
-306.46542 282.45987 -162.44746
-305.46472 282.4295 -162.46323
-304.51611 282.48843 -162.42087
-303.51538 282.45303 -162.43951
-302.5209 282.40887 -162.43684
-301.51389 282.38278 -162.47758
-300.51309 282.3479 -162.49701
-299.49701 282.40887 -162.5006
-298.49622 282.37415 -162.51958
-297.49664 282.47534 -162.47668
-296.49585 282.43951 -162.49559
-295.50128 282.45316 -162.4608
-294.50061 282.42215 -162.47696
-293.55682 282.36105 -162.41978
-292.5321 282.34833 -162.46706
-291.53134 282.31216 -162.48691
-290.56918 282.28592 -162.46138
-289.54306 282.27814 -162.50679
-288.55234 282.31195 -162.48463
-287.53622 282.36942 -162.48795
-286.53552 282.33466 -162.50658
-285.56708 282.31152 -162.44972
-284.54352 282.29984 -162.49658
-283.43552 282.42905 -162.41695
-282.44202 282.62881 -162.59816
-312.29599 283.73868 -162.49716
-311.43552 283.31174 -162.16541
-310.40704 283.30542 -162.19409
-309.42038 283.48215 -162.22668
-308.4021 283.60532 -162.17897
-307.40137 283.5708 -162.1915
-306.40067 283.53638 -162.20424
-305.39993 283.50204 -162.21722
-304.41162 283.56171 -162.19127
-303.41086 283.52563 -162.20505
-302.4101 283.48969 -162.21907
-301.40936 283.4538 -162.23332
-300.44952 283.36124 -162.21236
-299.40784 283.38242 -162.26259
-298.41956 283.44553 -162.24078
-297.4101 283.49075 -162.22067
-296.40936 283.45459 -162.23418
-295.4086 283.41855 -162.24796
-294.4079 283.38254 -162.26195
-293.4071 283.34674 -162.2762
-292.40634 283.31097 -162.2907
-291.40558 283.2753 -162.30542
-290.44656 283.22018 -162.26961
-289.44565 283.17606 -162.28857
-288.40707 283.34705 -162.28299
-287.40634 283.31351 -162.29559
-286.41113 283.54211 -162.20944
-285.41052 283.51093 -162.22113
-284.40985 283.47986 -162.23303
-283.4151 283.72894 -162.13187
-282.44995 283.58139 -162.16896
-322.29599 284.2009 -162.34196
-312.29599 284.58954 -162.24548
-311.3598 284.07767 -162.01309
-310.42194 284.0603 -162.01843
-309.3587 284.02548 -162.02921
-300.48553 284.1142 -162.00204
-299.48373 284.02615 -162.02901
-291.42276 284.10052 -162.00615
-290.42227 284.077 -162.01331
-289.4375 284.05789 -162.01917
-288.4213 284.02994 -162.02782
-287.42081 284.00644 -162.03519
-282.29599 284.27219 -162.01611
-312.29599 285.52838 -162.06105
-312.29599 286.57086 -162.00635
-312.29599 287.54343 -162.06641
-322.29599 288.22952 -162.18591
-312.29599 288.51611 -162.26001
-302.5791 288.98541 -162.02335
-292.51666 288.98776 -162.02408
-291.53168 288.95901 -162.01523
-290.51572 288.94107 -162.00977
-289.51526 288.91772 -162.0027
-284.45413 288.98651 -162.02368
-283.45361 288.9606 -162.0157
-282.45309 288.93469 -162.00783
-322.29599 289.52545 -162.58809
-312.29599 289.52545 -162.58809
-311.58398 289.63943 -162.18993
-310.52728 289.50833 -162.2057
-309.52655 289.47244 -162.19174
-308.52582 289.43643 -162.17801
-307.52505 289.40036 -162.16452
-306.52435 289.36423 -162.15132
-305.52359 289.32803 -162.13835
-304.52286 289.29178 -162.12566
-303.535 289.37479 -162.16078
-302.52509 289.39948 -162.16853
-301.56754 289.45825 -162.1331
-300.52359 289.32767 -162.14084
-299.52283 289.2916 -162.12735
-298.52213 289.25552 -162.11412
-297.52136 289.2193 -162.10114
-296.52063 289.18304 -162.08841
-295.52646 289.46277 -162.20001
-294.52582 289.43164 -162.18854
-293.52518 289.40039 -162.17726
-292.52933 289.59973 -162.25217
-291.57428 289.78168 -162.26158
-290.57339 289.73743 -162.24286
-289.53076 289.67154 -162.27524
-288.52087 289.69443 -162.28497
-287.52014 289.6604 -162.27126
-286.51941 289.62634 -162.2578
-285.51871 289.59225 -162.24452
-284.53079 289.67236 -162.27307
-283.48917 289.69589 -162.22484
-282.52292 289.65695 -162.23312
-312.29599 290.00281 -162.80038
-311.53448 290.52386 -162.49315
-310.54785 290.56891 -162.45381
-309.54691 290.52527 -162.43034
-308.54599 290.48141 -162.40718
-307.49042 290.41733 -162.43498
-306.47311 290.39941 -162.39989
-305.50357 290.4115 -162.45709
-304.50262 290.36829 -162.43472
-303.52463 290.4386 -162.43187
-302.57574 290.36606 -162.46069
-301.58957 290.60199 -162.59367
-300.58862 290.56305 -162.57204
-299.58777 290.52396 -162.55072
-298.58698 290.48468 -162.52969
-297.58609 290.44525 -162.50899
-296.54572 290.39075 -162.54164
-295.54813 290.51291 -162.57411
-294.54987 290.58167 -162.63788
-293.57364 290.57541 -162.56789
-292.57095 290.60983 -162.61127
-291.54321 290.64078 -162.65582
-290.59201 290.64182 -162.58292
-289.59109 290.59872 -162.55902
-288.60455 290.62643 -162.55167
-287.57047 290.62561 -162.53125
-286.51797 290.57965 -162.57393
-285.54813 290.58176 -162.50812
-284.52805 290.55679 -162.5799
-283.46402 290.64279 -162.53239
-282.55017 290.60782 -162.66011
-311.2959 291.51465 -162.729
-310.23434 291.63962 -162.73369
-309.23355 291.60519 -162.70964
-308.23279 291.57059 -162.68593
-307.27863 291.55988 -162.7048
-306.43042 291.4498 -162.69795
-305.39743 291.47934 -162.62537
-304.4516 291.31644 -162.73376
-303.36252 291.39099 -162.74213
-302.36185 291.36053 -162.72194
-301.11612 291.59564 -162.6514
-300.23288 291.57388 -162.68903
-299.23209 291.5394 -162.66512
-298.23132 291.5047 -162.64149
-297.31369 291.4017 -162.70305
-296.41122 291.38815 -162.65688
-295.43707 291.31329 -162.67725
-294.39517 291.37766 -162.55881
-293.33969 291.43335 -162.58151
-292.26108 291.46399 -162.55542
-291.26028 291.42834 -162.53218
-290.23135 291.5062 -162.64699
-289.23062 291.47168 -162.62318
-288.22986 291.43692 -162.59969
-287.21371 291.48523 -162.5787
-286.24042 291.56168 -162.63455
-285.40317 291.45151 -162.64812
-284.3656 291.4808 -162.56703
-283.45166 291.41058 -162.6591
-282.73395 291.0491 -162.75633
-305.01398 292.09778 -162.94087
-304.01224 292.02023 -162.88025
-295.01489 292.13721 -162.97223
-294.0769 292.11502 -162.9549
-293.46805 292.15808 -162.989
-292.13959 292.12451 -162.9621
-291.1391 292.10165 -162.94394
-290.13858 292.07874 -162.92587
-289.13806 292.05579 -162.90785
-288.13751 292.03271 -162.88991
-287.13699 292.00961 -162.87204
-285.79599 292.16885 -162.99768
-284.01404 292.09964 -162.94237
-297.79602 295.55475 -162.1082
-293.79599 295.55475 -162.1082
-285.79599 295.55475 -162.1082
-281.79602 295.56827 -162.12369
-297.52029 296.31476 -162.61319
-294.07202 296.31427 -162.61206
-285.52002 296.31427 -162.61206
-282.0683 296.32162 -162.6279
-297.77591 312.4223 -162.37987
-293.81638 312.42621 -162.37465
-285.77563 312.42624 -162.37466
-281.81631 312.42578 -162.37529
-311.62094 316.71005 -162.91518
-310.86426 316.20593 -162.8848
-309.86374 316.18097 -162.90361
-308.86322 316.15625 -162.92261
-307.85355 316.29102 -162.82913
-306.86652 316.31281 -162.81201
-305.81799 316.41797 -162.81474
-304.81723 316.38165 -162.83943
-303.81647 316.34564 -162.86443
-302.83694 316.42337 -162.79805
-301.83621 316.38974 -162.82196
-300.87906 316.31573 -162.81082
-299.87857 316.29092 -162.82901
-298.87802 316.2663 -162.84735
-297.85641 316.42694 -162.73416
-296.73428 316.49142 -162.75311
-295.7052 316.62332 -162.72243
-294.70444 316.58878 -162.74513
-293.71689 316.48398 -162.8009
-292.703 316.52048 -162.79135
-291.70227 316.48669 -162.81488
-290.70154 316.45322 -162.83867
-289.71762 316.39929 -162.82535
-288.71707 316.37454 -162.84334
-287.71655 316.35001 -162.86148
-286.73288 316.42642 -162.79604
-285.73181 316.39835 -162.81544
-284.70309 316.52432 -162.78906
-283.495 316.55096 -162.82649
-311.44272 317.6572 -162.5453
-310.56909 317.47595 -162.46709
-309.56833 317.44131 -162.48711
-308.56757 317.40683 -162.5074
-307.55148 317.46747 -162.50929
-306.55075 317.43311 -162.52914
-305.54419 317.52716 -162.48071
-304.56961 317.50342 -162.45299
-303.56888 317.46817 -162.4722
-302.5394 317.45178 -162.4883
-301.49515 317.49084 -162.49438
-300.49442 317.45609 -162.5141
-299.49365 317.42151 -162.53409
-298.49289 317.38708 -162.55435
-297.45959 317.39114 -162.59715
-296.51093 317.45551 -162.5621
-295.50128 317.65317 -162.46078
-294.50061 317.62213 -162.47694
-293.55676 317.5611 -162.41978
-292.53214 317.54828 -162.46706
-291.53131 317.51215 -162.48692
-290.56918 317.48593 -162.46136
-289.56845 317.45114 -162.48117
-288.56772 317.41644 -162.50125
-287.56699 317.38196 -162.52158
-286.55087 317.44266 -162.52354
-285.57062 317.40146 -162.51001
-284.54355 317.49982 -162.4966
-283.4671 317.48236 -162.43901
-282.45224 317.48593 -162.77763
-322.29599 318.13998 -162.84319
-312.29599 318.53931 -162.67017
-311.43549 318.51172 -162.16542
-310.40701 318.50543 -162.19409
-309.40616 318.4639 -162.21187
-308.40527 318.42252 -162.22995
-307.36386 318.4494 -162.26083
-306.37946 318.48773 -162.25511
-305.36557 318.52969 -162.22675
-304.36484 318.49551 -162.24049
-303.36411 318.4614 -162.25444
-302.3634 318.42734 -162.2686
-301.40558 318.47516 -162.30608
-300.43317 318.49536 -162.24953
-299.43234 318.45392 -162.26721
-298.43146 318.41266 -162.2852
-297.43057 318.37158 -162.30351
-296.40561 318.47824 -162.31099
-295.4086 318.61853 -162.24794
-294.4079 318.58258 -162.26195
-293.4071 318.54672 -162.27621
-292.40634 318.51093 -162.29068
-291.40558 318.47531 -162.30539
-290.44656 318.42017 -162.26961
-289.44562 318.37604 -162.28857
-288.4408 318.33987 -162.29294
-287.44382 318.28836 -162.32756
-286.40182 318.29883 -162.3826
-285.41385 318.3735 -162.35405
-284.40411 318.40604 -162.33823
-283.35312 318.31274 -162.30367
-282.44479 318.32019 -162.35359
-322.29599 319.40091 -162.34196
-312.29599 319.40091 -162.34196
-311.3598 319.27768 -162.01309
-310.42194 319.26031 -162.01843
-309.42078 319.20331 -162.03619
-308.41962 319.14648 -162.0545
-307.41843 319.08984 -162.07333
-306.35712 319.14737 -162.05403
-305.3566 319.1214 -162.06247
-304.35605 319.09546 -162.07098
-303.35553 319.06955 -162.07961
-302.35498 319.04364 -162.0883
-301.35443 319.01776 -162.09708
-300.48553 319.31418 -162.00204
-299.48373 319.22614 -162.02901
-298.48193 319.13837 -162.05693
-297.48013 319.05093 -162.08583
-291.42276 319.30054 -162.00615
-290.42227 319.27698 -162.01331
-289.4375 319.2579 -162.01917
-288.43671 319.21826 -162.03149
-287.43588 319.17874 -162.04411
-286.43509 319.13934 -162.05702
-285.41986 319.15955 -162.05011
-284.4194 319.13611 -162.05768
-283.41888 319.11273 -162.06531
-282.39777 319.18506 -162.05878
-322.29599 320.72839 -162.06105
-312.29599 320.45328 -162.10501
-312.29599 321.45746 -162.00415
-322.29599 322.08429 -162.00854
-312.29599 322.41385 -162.03748
-322.29599 323.42953 -162.18591
-312.29599 323.42953 -162.18591
-322.29599 324.72546 -162.58809
-312.29599 324.36407 -162.46111
-311.52808 324.74417 -162.21992
-310.52728 324.70831 -162.20569
-309.52655 324.67242 -162.19174
-308.52582 324.63644 -162.17801
-307.52505 324.6004 -162.16454
-306.52435 324.56424 -162.15132
-305.52359 324.52802 -162.13835
-304.52286 324.49176 -162.12566
-303.52209 324.45538 -162.11319
-302.52136 324.41898 -162.101
-301.50641 324.45361 -162.11209
-300.52359 324.52765 -162.14084
-299.52286 324.49161 -162.12735
-298.52213 324.45547 -162.11412
-297.52136 324.41931 -162.10114
-296.52063 324.383 -162.08841
-295.5199 324.34668 -162.07593
-294.5191 324.31027 -162.06369
-293.51837 324.27377 -162.05174
-292.51764 324.23724 -162.04004
-291.51691 324.20065 -162.02856
-290.51993 324.3454 -162.08189
-289.51917 324.30923 -162.06889
-288.52386 324.54102 -162.14684
-287.52271 324.48535 -162.12599
-286.5285 324.7641 -162.2327
-285.52777 324.72812 -162.21902
-284.52704 324.69208 -162.2056
-283.52631 324.65594 -162.19243
-282.5007 324.67133 -162.17502
-312.29599 325.20279 -162.80038
-311.60724 325.57565 -162.45836
-310.54739 325.6889 -162.55142
-309.60138 325.68964 -162.47272
-308.54599 325.68146 -162.40717
-307.49045 325.61731 -162.435
-306.47311 325.5994 -162.3999
-305.48877 325.53998 -162.39595
-304.48792 325.50101 -162.37688
-303.48712 325.46204 -162.35811
-302.54996 325.4379 -162.44052
-301.54898 325.39194 -162.41823
-300.5441 325.53592 -162.47435
-299.54324 325.49579 -162.45328
-298.5976 325.51501 -162.38461
-297.59662 325.46863 -162.36096
-296.54059 325.37445 -162.39201
-295.53973 325.33368 -162.37222
-294.53885 325.29279 -162.35277
-293.53793 325.25171 -162.3336
-292.53983 325.33438 -162.37904
-291.54865 325.46045 -162.48495
-290.56656 325.51443 -162.47894
-289.54419 325.52249 -162.50787
-288.58362 325.53226 -162.45197
-287.58276 325.49261 -162.43163
-286.53906 325.65173 -162.55301
-285.53824 325.61349 -162.53326
-284.53738 325.5751 -162.51384
-283.50027 325.55313 -162.45352
-282.52863 325.54709 -162.5417
-311.27295 326.63309 -162.65283
-310.31311 326.64191 -162.57832
-309.21606 326.69168 -162.62131
-308.23279 326.7706 -162.68593
-307.27866 326.75983 -162.7048
-306.43045 326.64984 -162.69795
-305.4295 326.60858 -162.67119
-304.46844 326.4754 -162.75014
-303.46765 326.44 -162.72797
-302.45023 326.45502 -162.69539
-301.40527 326.47998 -162.67918
-300.40637 326.52853 -162.71065
-299.40558 326.49289 -162.68755
-298.34039 326.5155 -162.73322
-297.39514 326.43991 -162.76991
-296.45514 326.44034 -162.72702
-295.46979 326.39362 -162.73195
-294.46902 326.35934 -162.71036
-293.49557 326.30655 -162.64354
-292.45248 326.32037 -162.65219
-291.40753 326.41852 -162.55138
-290.35904 326.55942 -162.6171
-289.35818 326.51974 -162.59142
-288.26758 326.55182 -162.63655
-287.26685 326.51849 -162.61464
-286.27417 326.55658 -162.57384
-285.47339 326.45477 -162.54742
-284.42636 326.46332 -162.57893
-283.45062 326.26193 -162.52501
-282.65585 326.10724 -162.75253
-305.01398 327.29779 -162.94087
-304.01224 327.22025 -162.88025
-303.01047 327.14197 -162.8204
-302.00873 327.06296 -162.76137
-295.01489 327.33722 -162.97223
-294.0769 327.315 -162.9549
-293.31583 327.29944 -162.94298
-292.07458 327.21402 -162.8768
-291.07349 327.1629 -162.83839
-290.13858 327.27875 -162.92587
-289.13806 327.2558 -162.90785
-288.13751 327.23273 -162.88991
-287.13699 327.20963 -162.87204
-286.13647 327.18646 -162.85423
-285.46597 327.26605 -162.91708
-284.07474 327.21979 -162.88062
-283.23209 327.05798 -162.96605
-297.79602 330.75476 -162.1082
-293.79599 330.75476 -162.1082
-285.79599 330.75476 -162.1082
-281.79602 330.76825 -162.12369
-297.52029 331.51477 -162.61319
-294.07202 331.51428 -162.61206
-285.52002 331.51428 -162.61206
-282.0683 331.52164 -162.6279
-297.77591 347.62231 -162.37987
-293.81638 347.62622 -162.37466
-285.77563 347.62622 -162.37466
-281.81631 347.62576 -162.37529
-311.62012 351.84958 -162.95659
-310.86426 351.40594 -162.8848
-309.86374 351.38098 -162.90361
-308.86322 351.35626 -162.92262
-307.86267 351.33173 -162.9418
-306.88358 351.33511 -162.93909
-305.86597 351.48676 -162.82965
-304.86542 351.46088 -162.84749
-303.81647 351.54568 -162.86441
-302.8157 351.50995 -162.88974
-301.81491 351.47452 -162.91536
-300.86328 351.35931 -162.92096
-299.86273 351.33447 -162.93983
-298.86224 351.30981 -162.95889
-297.84116 351.29874 -162.96736
-296.84061 351.27377 -162.9873
-295.86154 351.27948 -162.98271
-294.8688 351.61969 -162.73483
-293.85382 351.52698 -162.80144
-292.81854 351.64401 -162.79329
-291.81778 351.60809 -162.81842
-290.81699 351.57251 -162.84387
-289.86609 351.49072 -162.82462
-288.86554 351.46552 -162.84317
-287.71652 351.54999 -162.86148
-286.71603 351.52563 -162.87979
-285.71512 351.50839 -162.89262
-284.71844 351.6402 -162.7961
-283.53546 351.66965 -162.83876
-311.46494 352.54883 -162.63718
-310.63513 352.52457 -162.42387
-309.63431 352.48505 -162.44719
-308.63348 352.44574 -162.47086
-307.63266 352.40671 -162.49484
-306.56613 352.53845 -162.54875
-305.55191 352.58496 -162.52863
-304.58505 352.61234 -162.47284
-303.56888 352.66812 -162.4722
-302.5798 352.60565 -162.47343
-301.56741 352.59818 -162.51141
-300.56668 352.56354 -162.53142
-299.56592 352.52902 -162.5517
-298.56516 352.49466 -162.57225
-297.56445 352.46057 -162.59302
-296.56369 352.42673 -162.61406
-295.60431 352.40146 -162.55336
-294.54059 352.54788 -162.55717
-293.5535 352.57892 -162.45912
-292.51154 352.64801 -162.48831
-291.51077 352.612 -162.50847
-290.55051 352.59494 -162.48126
-289.54977 352.56024 -162.50133
-288.54904 352.52567 -162.52167
-287.56699 352.58203 -162.52159
-286.56628 352.54776 -162.54216
-285.58472 352.51474 -162.52797
-284.55115 352.55432 -162.54636
-283.45276 352.57031 -162.47505
-282.45224 352.68594 -162.77763
-322.29599 353.33997 -162.84319
-312.29599 353.33997 -162.84319
-311.45154 353.34424 -162.30379
-310.40277 353.5177 -162.31055
-309.40204 353.48215 -162.32634
-308.40128 353.44666 -162.34242
-307.40054 353.41138 -162.35872
-306.40356 353.54022 -162.26706
-305.40268 353.49936 -162.28609
-304.37772 353.60571 -162.29028
-303.36411 353.66138 -162.25444
-302.3634 353.62741 -162.2686
-301.36267 353.59341 -162.28297
-300.40372 353.54785 -162.26009
-299.40283 353.5065 -162.27823
-298.40195 353.46527 -162.29671
-297.40109 353.42422 -162.31548
-296.40024 353.38333 -162.33456
-295.39938 353.34268 -162.35396
-294.37445 353.44928 -162.35934
-293.41183 353.47974 -162.39616
-292.39377 353.61008 -162.33708
-291.39307 353.57629 -162.35143
-290.42987 353.53976 -162.31593
-289.42902 353.4985 -162.334
-288.42215 353.45142 -162.34731
-287.44379 353.48837 -162.32756
-286.44284 353.44479 -162.34758
-285.44199 353.4014 -162.36795
-284.44107 353.35818 -162.38866
-283.36771 353.44937 -162.34427
-282.43811 353.46887 -162.37949
-322.29599 354.60089 -162.34196
-312.29599 354.36978 -162.41956
-311.39954 354.13159 -162.12984
-310.42194 354.4603 -162.01843
-309.42078 354.40332 -162.03619
-308.41962 354.3465 -162.0545
-307.41843 354.28986 -162.07333
-306.41724 354.23337 -162.09268
-305.41611 354.17706 -162.11255
-304.35605 354.29547 -162.07098
-303.35553 354.26953 -162.07961
-302.35498 354.24362 -162.0883
-301.35443 354.21777 -162.09708
-300.41974 354.35306 -162.05399
-299.41858 354.29614 -162.07195
-298.41739 354.23938 -162.09042
-297.41623 354.1828 -162.10944
-296.41504 354.12637 -162.12897
-295.41388 354.07016 -162.14902
-294.35071 354.0376 -162.16089
-293.35019 354.01199 -162.17033
-291.42276 354.50052 -162.00615
-290.42227 354.47696 -162.01331
-289.4375 354.45789 -162.01917
-288.43668 354.41827 -162.03149
-287.43588 354.37872 -162.04411
-286.43506 354.33936 -162.05702
-285.43427 354.30002 -162.07024
-284.43344 354.2608 -162.08372
-283.41888 354.31271 -162.06531
-282.42181 354.32486 -162.06084
-322.29599 355.92841 -162.06105
-312.29599 355.65326 -162.10501
-312.29599 356.65744 -162.00415
-322.29599 357.28427 -162.00854
-312.29599 357.61383 -162.03748
-322.29599 358.62952 -162.18591
-312.29599 358.62952 -162.18591
-322.29599 359.92545 -162.58809
-312.29599 359.56409 -162.46111
-311.52563 359.82779 -162.17406
-310.52515 359.80481 -162.16554
-309.54138 359.83386 -162.17693
-308.54059 359.79523 -162.16229
-307.52509 359.80035 -162.16454
-306.52432 359.76422 -162.15132
-305.52359 359.72803 -162.13835
-304.52286 359.69177 -162.12566
-303.52209 359.65536 -162.11317
-302.52136 359.61899 -162.101
-301.50641 359.65363 -162.11209
-300.50592 359.62985 -162.10388
-299.50546 359.60608 -162.09573
-298.52213 359.65546 -162.11412
-297.52136 359.61926 -162.10114
-296.52063 359.58307 -162.08841
-295.51987 359.54669 -162.07593
-294.5191 359.51022 -162.06371
-293.51837 359.47379 -162.05173
-292.51764 359.43726 -162.04002
-291.51691 359.40063 -162.02856
-290.5011 359.39117 -162.02567
-289.50061 359.36719 -162.01825
-288.52386 359.74103 -162.14684
-287.52271 359.68536 -162.12599
-286.52155 359.62952 -162.10567
-285.52042 359.57355 -162.08589
-284.51929 359.5174 -162.06662
-283.51813 359.46109 -162.04788
-282.44498 359.71045 -162.13556
-312.29599 360.4028 -162.80038
-311.60944 360.55042 -162.39328
-310.54199 360.59494 -162.51401
-309.53275 360.6489 -162.53777
-308.56976 360.66177 -162.49141
-307.58597 360.7291 -162.51115
-306.53366 360.74387 -162.45828
-305.54303 360.68756 -162.44742
-304.54214 360.64679 -162.42757
-303.54129 360.60596 -162.40804
-302.54037 360.56494 -162.38882
-301.53955 360.52377 -162.36995
-300.51462 360.58896 -162.45454
-299.51373 360.54865 -162.43513
-298.54233 360.65549 -162.43257
-297.54147 360.61505 -162.41214
-296.54059 360.57446 -162.39201
-295.5397 360.53372 -162.37222
-294.53885 360.49277 -162.35277
-293.53799 360.45169 -162.3336
-292.52686 360.4252 -162.3045
-291.53622 360.3692 -162.29628
-290.53534 360.3277 -162.27809
-289.51041 360.39313 -162.36281
-288.49588 360.41263 -162.36192
-287.53812 360.45914 -162.34145
-286.53726 360.4184 -162.32173
-285.53641 360.37744 -162.30232
-284.53555 360.3364 -162.28323
-283.49405 360.36902 -162.2469
-282.56595 360.46576 -162.39275
-311.5087 361.353 -162.61325
-310.55569 361.4277 -162.4796
-309.47568 361.46048 -162.46373
-308.42081 361.4801 -162.44817
-307.38434 361.43573 -162.51541
-306.57193 361.57703 -162.61526
-305.49683 361.59872 -162.57742
-304.51758 361.51779 -162.69489
-303.51666 361.47559 -162.66873
-302.56674 361.48367 -162.72391
-301.56573 361.4389 -162.69693
-300.59058 361.51944 -162.7023
-299.58957 361.47461 -162.67473
-298.4892 361.54959 -162.67227
-297.55054 361.45355 -162.70782
-296.55206 361.52863 -162.75011
-295.55923 361.48389 -162.75354
-294.55832 361.44202 -162.72717
-293.58121 361.39038 -162.64529
-292.55643 361.35767 -162.67543
-291.55548 361.31509 -162.65009
-290.55453 361.27237 -162.62506
-289.57654 361.34119 -162.62823
-288.51828 361.36676 -162.59863
-287.48624 361.36218 -162.59895
-286.48392 361.29364 -162.6748
-285.58014 361.34232 -162.61832
-284.55524 361.30453 -162.64508
-283.47916 361.32324 -162.59773
-282.5556 361.22739 -162.76599
-311.06793 362.11462 -162.65414
-310.06735 362.08844 -162.63567
-309.0882 362.08948 -162.63635
-308.08804 362.08145 -162.63074
-307.08786 362.07346 -162.62515
-306.08768 362.06543 -162.61958
-305.04953 362.22409 -162.7368
-304.04895 362.19824 -162.7166
-303.04837 362.17212 -162.69664
-302.04776 362.14584 -162.67696
-301.04721 362.11923 -162.65755
-300.0466 362.09244 -162.63843
-299.04599 362.06543 -162.61958
-298.06732 362.08722 -162.63477
-297.06732 362.08722 -162.63477
-296.06732 362.08722 -162.63477
-295.04984 362.23721 -162.74725
-294.07211 362.30109 -162.79483
-293.21643 362.33453 -162.8197
-292.07095 362.25061 -162.75578
-291.0704 362.2251 -162.73657
-290.21994 362.16595 -162.7731
-289.06927 362.1734 -162.69887
-288.09073 362.20239 -162.7198
-287.09055 362.19467 -162.71385
-286.09036 362.18698 -162.70793
-285.26663 362.27661 -162.77592
-284.07104 362.25348 -162.75769
-283.23209 362.258 -162.96605
-297.79602 365.95474 -162.1082
-293.79599 365.95474 -162.1082
-285.79599 365.95474 -162.1082
-281.79602 365.96826 -162.12369
-297.52029 366.71478 -162.61319
-294.07202 366.71423 -162.61206
-285.52002 366.71423 -162.61206
-282.0683 366.72162 -162.6279
-283.57382 212.86269 -161.73235
-282.49927 213.90366 -161.89725
-282.49423 214.61829 -161.7554
-282.48361 215.4529 -161.64603
-282.48404 216.54013 -161.62926
-282.50998 217.62175 -161.7455
-283.47531 218.56802 -161.6637
-282.55438 218.54068 -161.94223
-286.61246 219.39488 -161.74011
-283.39459 219.5965 -161.8542
-290.54108 220.03879 -161.90044
-289.54108 220.03879 -161.90044
-288.54108 220.03879 -161.90044
-287.54108 220.03879 -161.90044
-286.68802 220.0927 -161.92723
-285.68738 220.06311 -161.91235
-284.6868 220.0334 -161.89783
-283.97858 220.03879 -161.90044
-282.38336 225.40155 -161.50859
-285.68674 242.73169 -161.46246
-282.00754 242.79517 -161.2515
-281.85437 242.70067 -161.56691
-299.89996 247.53835 -161.83174
-298.89883 247.48009 -161.85844
-297.89767 247.42212 -161.88567
-296.89655 247.36441 -161.91339
-295.89539 247.30701 -161.94165
-294.89423 247.24992 -161.9704
-293.95697 247.26129 -161.96455
-292.90131 247.60675 -161.80954
-291.90015 247.54782 -161.83482
-290.84256 247.7951 -161.7168
-289.84079 247.70422 -161.75603
-288.83899 247.61382 -161.79622
-287.83722 247.52393 -161.83736
-286.83542 247.43456 -161.87947
-285.90253 247.66985 -161.77881
-284.9014 247.61205 -161.80624
-283.5387 247.95009 -161.78168
-295.63953 248.51253 -161.75638
-294.63882 248.4783 -161.76831
-293.6539 248.43143 -161.75389
-292.63959 248.52002 -161.75639
-291.73682 248.37561 -161.64905
-290.71179 248.47673 -161.66106
-289.7486 248.35619 -161.61925
-288.7478 248.31621 -161.6324
-287.74701 248.27632 -161.6459
-286.74625 248.23657 -161.65977
-285.7554 248.35524 -161.60439
-284.74783 248.32202 -161.6335
-283.43716 248.5038 -161.64812
-293.54892 249.49773 -161.5229
-292.52744 249.52402 -161.54893
-291.52658 249.60841 -161.55629
-290.52933 249.61967 -161.52663
-289.52856 249.58003 -161.53424
-288.5278 249.54039 -161.54221
-287.52704 249.50082 -161.55051
-286.48312 249.50612 -161.52058
-285.46622 249.5352 -161.5143
-284.4155 249.51546 -161.54729
-283.45975 249.51944 -161.59021
-282.48724 249.35408 -161.84975
-292.39871 250.42679 -161.54091
-291.45786 250.65887 -161.46455
-290.45694 250.61014 -161.46782
-289.45602 250.56142 -161.47147
-288.45514 250.51263 -161.47551
-287.45422 250.4639 -161.47995
-286.50882 250.46707 -161.53333
-285.45444 250.48026 -161.47946
-284.45013 250.58633 -161.49234
-283.38773 250.49666 -161.46214
-282.47946 250.47878 -161.66238
-289.47241 251.4505 -161.36211
-288.47171 251.41115 -161.36089
-287.47098 251.37172 -161.35992
-286.50595 251.41949 -161.42041
-285.48245 251.4306 -161.41405
-284.4736 251.51976 -161.36377
-283.44379 251.54176 -161.37329
-282.48093 251.60474 -161.6265
-292.51172 252.48775 -161.44011
-291.48584 252.56216 -161.42096
-290.49188 252.54523 -161.44757
-289.48679 252.54683 -161.47313
-288.48608 252.50891 -161.46748
-287.48538 252.47101 -161.46211
-286.47052 252.51573 -161.44116
-285.51688 252.54866 -161.41771
-284.49237 252.57465 -161.45087
-283.48398 252.50554 -161.46384
-282.52448 252.57892 -161.71083
-294.5061 253.35181 -161.48853
-292.49884 253.45076 -161.45731
-291.5007 253.5551 -161.4828
-290.50955 253.53429 -161.53644
-289.51874 253.56087 -161.48238
-288.49435 253.60635 -161.63861
-287.49362 253.56757 -161.62839
-286.51724 253.58394 -161.63181
-285.51645 253.5439 -161.62178
-284.51752 253.60347 -161.63687
-283.47861 253.46606 -161.61269
-282.5256 253.47032 -161.8799
-300.52838 254.53595 -161.77231
-299.52722 254.47742 -161.74896
-298.52606 254.41869 -161.72614
-297.5249 254.35982 -161.7039
-296.52374 254.30075 -161.68219
-295.52258 254.24153 -161.66104
-294.52145 254.18216 -161.64047
-293.57544 254.16072 -161.59918
-292.57071 254.33015 -161.61597
-291.44165 254.38326 -161.66252
-290.4407 254.33472 -161.64345
-289.52502 254.36465 -161.71132
-288.60892 254.41119 -161.66911
-287.60757 254.34157 -161.64258
-286.6062 254.27171 -161.61674
-285.54181 254.37906 -161.61357
-284.60971 254.4552 -161.68848
-283.42029 254.39534 -161.74004
-282.67926 254.11769 -161.96039
-303.68558 255.17278 -161.86945
-302.39651 255.30193 -161.93196
-301.39633 255.2932 -161.92749
-300.39618 255.28444 -161.92303
-299.39597 255.27568 -161.91864
-298.39581 255.26691 -161.91425
-297.39563 255.2581 -161.9099
-296.54181 255.27576 -161.91862
-295.54126 255.2469 -161.90439
-294.54065 255.21793 -161.89043
-293.54007 255.18883 -161.87672
-292.39474 255.21393 -161.88855
-291.39456 255.20506 -161.88435
-290.39438 255.19617 -161.8802
-289.3942 255.18727 -161.8761
-288.39404 255.17836 -161.87199
-287.39383 255.16943 -161.86794
-286.54071 255.22049 -161.89311
-285.68738 255.26311 -161.91235
-284.6868 255.2334 -161.89783
-283.97751 255.18588 -161.87524
-285.79599 259.55371 -161.27522
-281.79602 259.57361 -161.29405
-297.20114 260.59116 -161.48618
-294.39069 260.59137 -161.48669
-285.20129 260.59137 -161.48669
-282.38336 260.60156 -161.50859
-297.63394 277.81976 -161.50128
-294.00754 277.99518 -161.2515
-293.91232 277.65714 -161.73285
-285.63208 277.82617 -161.49217
-282.00754 277.99518 -161.2515
-281.91269 277.65857 -161.73077
-297.79602 278.13293 -161.41263
-293.79599 278.14276 -161.40305
-285.79599 278.14276 -161.40305
-281.79602 278.14276 -161.40305
-310.90332 282.90704 -161.75479
-309.90216 282.84839 -161.78079
-308.90103 282.79004 -161.80733
-307.89984 282.73196 -161.83438
-306.89871 282.67416 -161.86192
-305.89758 282.61667 -161.89001
-304.96277 282.75143 -161.82465
-303.96222 282.72482 -161.83694
-302.9617 282.69824 -161.84933
-301.96118 282.67175 -161.8618
-300.90115 282.79688 -161.80557
-299.89996 282.73834 -161.83174
-298.89883 282.68005 -161.85844
-297.89767 282.6221 -161.88567
-296.89655 282.56442 -161.91339
-295.89539 282.50702 -161.94165
-294.89423 282.44995 -161.9704
-293.95697 282.46127 -161.96455
-292.95645 282.43521 -161.97777
-291.95593 282.40915 -161.99106
-290.84256 282.99512 -161.7168
-289.84079 282.90421 -161.75603
-288.83899 282.81381 -161.79622
-287.83722 282.72394 -161.83736
-286.83542 282.63455 -161.87947
-285.83365 282.54572 -161.92252
-284.83188 282.45743 -161.96651
-311.48962 283.7168 -161.8105
-307.75 283.62634 -161.59224
-306.74918 283.58652 -161.60587
-305.74838 283.54681 -161.61987
-304.74762 283.50723 -161.63423
-303.74686 283.46783 -161.64897
-302.74609 283.42856 -161.66405
-301.74533 283.38943 -161.67949
-300.76642 283.60095 -161.55597
-299.75003 283.63074 -161.59113
-298.74927 283.5907 -161.60417
-297.7485 283.55075 -161.61755
-296.74771 283.51096 -161.6313
-295.74695 283.47128 -161.64543
-294.74612 283.43176 -161.65993
-293.75262 283.41013 -161.65182
-292.74463 283.35318 -161.69
-291.7438 283.31409 -161.70557
-290.76447 283.50198 -161.59236
-289.7486 283.55618 -161.61925
-288.7478 283.5162 -161.63239
-287.74704 283.47632 -161.64589
-286.74625 283.43655 -161.65979
-285.75266 283.41403 -161.6512
-284.74472 283.35751 -161.68864
-283.53268 283.33725 -161.74374
-307.47916 284.67694 -161.59023
-306.435 284.64743 -161.56062
-305.43427 284.60794 -161.56976
-304.47681 284.55576 -161.61864
-303.52695 284.54663 -161.55478
-302.52292 284.49271 -161.59863
-301.52209 284.45358 -161.60907
-300.54181 284.58688 -161.54851
-299.52576 284.64117 -161.56456
-298.52496 284.60165 -161.57301
-297.5242 284.56219 -161.5818
-296.52347 284.52274 -161.59093
-295.52264 284.48337 -161.60036
-294.52191 284.44409 -161.61012
-293.54407 284.45392 -161.57933
-292.52039 284.36569 -161.63063
-291.55594 284.41138 -161.50456
-290.5574 284.49335 -161.48764
-289.56952 284.6416 -161.39153
-288.56039 284.64224 -161.45016
-287.52704 284.70084 -161.55051
-286.52628 284.66132 -161.55914
-285.548 284.65286 -161.53154
-284.52475 284.58243 -161.57735
-283.44684 284.45102 -161.59853
-282.48724 284.55411 -161.84975
-306.45297 285.60147 -161.48347
-305.45203 285.5527 -161.48897
-304.45111 285.50391 -161.49486
-303.4502 285.45517 -161.50114
-302.44931 285.4064 -161.50781
-301.44836 285.35776 -161.51494
-300.45154 285.53302 -161.49579
-299.45267 285.59006 -161.48746
-298.45175 285.54129 -161.49211
-297.45087 285.49249 -161.49716
-296.44995 285.44373 -161.50262
-295.44907 285.39496 -161.50847
-294.44812 285.34622 -161.51472
-293.4472 285.29745 -161.52138
-292.44629 285.24869 -161.52844
-291.44534 285.20004 -161.53589
-290.38995 285.17151 -161.59546
-289.45505 285.39023 -161.53853
-288.45157 285.53503 -161.55357
-287.45422 285.66388 -161.47995
-286.45331 285.61511 -161.4848
-285.45239 285.56631 -161.49005
-284.45148 285.51758 -161.4957
-283.38394 285.49197 -161.46306
-282.46832 285.63104 -161.67416
-303.46786 286.40274 -161.3571
-302.46713 286.36301 -161.35794
-301.46643 286.32324 -161.35913
-300.47488 286.50595 -161.38493
-299.46982 286.51202 -161.35838
-298.46912 286.47256 -161.35762
-297.46838 286.43301 -161.35716
-296.5112 286.38153 -161.39275
-295.46695 286.35382 -161.35722
-294.46622 286.31418 -161.35773
-293.46552 286.27441 -161.35854
-292.46481 286.23462 -161.35968
-291.46405 286.19485 -161.36115
-290.46982 286.22525 -161.38799
-289.46988 286.51398 -161.42691
-288.47171 286.61115 -161.36086
-287.47098 286.57172 -161.35992
-286.51459 286.5629 -161.39481
-285.4696 286.49268 -161.35905
-284.46887 286.45309 -161.35907
-283.46323 286.47321 -161.38287
-282.49661 286.63406 -161.61635
-305.48807 287.53937 -161.41635
-304.48734 287.50046 -161.41212
-303.48669 287.46155 -161.40823
-302.48599 287.42261 -161.40463
-301.49146 287.43262 -161.43269
-300.48929 287.60822 -161.42708
-299.48856 287.56927 -161.42157
-298.48788 287.5303 -161.4164
-297.48718 287.4913 -161.41151
-296.48645 287.45233 -161.40695
-295.48578 287.41339 -161.40271
-294.48511 287.37448 -161.39879
-293.48441 287.33557 -161.39516
-292.4837 287.29666 -161.39186
-291.48303 287.25763 -161.38885
-290.50131 287.51743 -161.46265
-289.49118 287.70624 -161.44159
-288.49048 287.66727 -161.43591
-287.48975 287.6283 -161.43057
-286.48904 287.58932 -161.42554
-285.48837 287.55038 -161.42079
-284.48767 287.51141 -161.4164
-283.45551 287.4343 -161.41771
-282.50555 287.42404 -161.66566
-311.52005 288.71429 -161.76596
-310.51001 288.71204 -161.72089
-309.50912 288.66473 -161.70821
-308.50821 288.6174 -161.69595
-307.50732 288.56998 -161.68405
-306.50641 288.52258 -161.67255
-305.49792 288.49249 -161.63785
-304.50464 288.42755 -161.65077
-303.50372 288.38 -161.64046
-302.50284 288.3324 -161.63055
-301.53003 288.44806 -161.64941
-300.50705 288.5585 -161.68427
-299.50616 288.51117 -161.67194
-298.50525 288.46378 -161.66003
-297.50439 288.41638 -161.6485
-296.50348 288.36887 -161.63737
-295.50256 288.32138 -161.62663
-294.50168 288.2738 -161.61627
-293.53033 288.20715 -161.55867
-292.49988 288.17859 -161.5968
-291.49146 288.14673 -161.56313
-290.50473 288.44958 -161.5515
-289.50662 288.55701 -161.57414
-288.50858 288.62994 -161.70447
-287.50769 288.58264 -161.69234
-286.50681 288.53522 -161.6806
-285.53494 288.4426 -161.61531
-284.505 288.44031 -161.65834
-283.43289 288.41684 -161.60825
-282.50055 288.43051 -161.84225
-311.29202 289.53247 -161.72711
-310.52536 289.59445 -161.66847
-309.52457 289.55545 -161.65277
-308.52377 289.51633 -161.63744
-307.52301 289.47714 -161.62247
-306.52228 289.43777 -161.60788
-305.52148 289.39835 -161.59366
-304.52072 289.35883 -161.57982
-303.51999 289.31918 -161.56636
-302.5192 289.27945 -161.55327
-301.46918 289.2894 -161.51155
-300.5239 289.52017 -161.64018
-299.5231 289.48117 -161.62459
-298.52234 289.44205 -161.60939
-297.52158 289.4028 -161.59456
-296.52078 289.3634 -161.58009
-295.52005 289.32394 -161.56599
-294.51932 289.28433 -161.55228
-293.55817 289.28302 -161.5354
-292.51773 289.20486 -161.52594
-291.51697 289.16501 -161.51337
-290.46671 289.16083 -161.46689
-289.52167 289.40598 -161.59952
-288.5209 289.36685 -161.58443
-287.52014 289.32755 -161.56972
-286.51938 289.28815 -161.5554
-285.55826 289.28644 -161.53752
-284.51782 289.20905 -161.52785
-283.46576 289.34515 -161.64699
-282.67422 289.14874 -161.90765
-311.10355 290.43878 -161.90044
-310.54108 290.43878 -161.90044
-309.54108 290.43878 -161.90044
-308.54108 290.43878 -161.90044
-307.68799 290.49194 -161.92685
-306.68735 290.46237 -161.912
-305.6868 290.43268 -161.89748
-304.68616 290.4028 -161.8833
-303.68558 290.37277 -161.86945
-302.54059 290.414 -161.8907
-301.53998 290.38474 -161.87746
-300.39618 290.48447 -161.92303
-299.39597 290.47568 -161.91862
-298.39581 290.46689 -161.91425
-297.3956 290.4581 -161.9099
-296.54181 290.47577 -161.91864
-295.54123 290.4469 -161.90439
-294.54065 290.41794 -161.89041
-293.54007 290.38882 -161.87672
-292.53946 290.35962 -161.8633
-291.53888 290.33029 -161.85014
-290.53833 290.30084 -161.83727
-289.3942 290.38727 -161.8761
-288.39401 290.37836 -161.87199
-287.39383 290.36945 -161.86794
-286.54071 290.4205 -161.89311
-285.54013 290.3916 -161.87897
-284.53955 290.36261 -161.8651
-283.71939 290.27386 -161.89117
-297.79602 294.75369 -161.27522
-293.79599 294.75369 -161.27522
-285.79599 294.75369 -161.27522
-281.79602 294.77362 -161.29405
-297.20114 295.79114 -161.48618
-294.39069 295.79138 -161.48669
-285.20129 295.79138 -161.48669
-282.38336 295.80154 -161.50859
-297.68079 312.85251 -161.73946
-293.91232 312.85712 -161.73285
-285.67966 312.85712 -161.73285
-281.91269 312.85858 -161.73077
-297.69156 313.25998 -161.33788
-294.00754 313.19516 -161.2515
-293.79599 313.34274 -161.40305
-285.69025 313.26895 -161.32727
-282.00754 313.19516 -161.2515
-281.79602 313.34274 -161.40305
-308.83719 317.92172 -161.83838
-307.83539 317.83237 -161.88051
-306.83362 317.74353 -161.92357
-305.89758 317.81668 -161.89001
-304.96277 317.95145 -161.82465
-303.96222 317.92484 -161.83694
-302.9617 317.89825 -161.84933
-301.96118 317.87173 -161.8618
-300.96066 317.84525 -161.87436
-299.96011 317.81882 -161.88699
-298.89883 317.88007 -161.85844
-297.89767 317.82211 -161.88567
-296.89655 317.7644 -161.91339
-295.89539 317.70703 -161.94165
-294.89423 317.6499 -161.9704
-293.95697 317.66129 -161.96455
-292.95645 317.63522 -161.97777
-291.95593 317.60916 -161.99106
-287.83722 317.92392 -161.83736
-286.83542 317.83456 -161.87947
-285.83365 317.74573 -161.92252
-284.83188 317.65744 -161.96651
-311.64828 318.78372 -161.86453
-310.90808 318.3493 -161.65704
-309.89755 318.45282 -161.6209
-308.86298 318.62457 -161.6226
-307.86215 318.58228 -161.63745
-306.88156 318.6127 -161.61507
-305.86432 318.69205 -161.59309
-304.74765 318.70721 -161.63423
-303.74686 318.66779 -161.64894
